ply
format ascii 1.0
element vertex 1568
property float32 x
property float32 y
property float32 z
property float32 I
end_header
-10.3112 7.9998 1.6995 0.9487
-9.3889 6.0209 1.4524 0.9560
-9.4239 4.9135 1.3840 0.9580
-9.4239 2.9295 1.2851 0.9610
-9.4103 0.3065 1.2261 0.9627
-9.4103 -0.5375 1.2274 0.9627
-9.4103 -1.3901 1.2387 0.9624
-9.4103 -2.2657 1.2604 0.9617
-9.4103 -3.1800 1.2935 0.9607
-9.4103 -4.1516 1.3394 0.9594
-13.3302 -13.0281 2.4272 0.9276
14.9498 -6.2544 2.1103 0.9367
15.2803 -3.3690 2.0376 0.9388
15.9118 -2.0382 2.0890 0.9373
17.3521 -0.6560 2.2612 0.9324
15.0295 6.5370 2.1343 0.9360
-9.3889 8.9220 1.6866 0.9491
-10.0914 7.9998 1.6769 0.9494
-9.3889 6.1605 1.4623 0.9557
-9.3754 1.2508 1.2317 0.9626
-9.4103 0.4051 1.2265 0.9627
-9.3754 -0.4371 1.2222 0.9628
-9.4103 -2.1618 1.2573 0.9618
-9.4103 -3.0707 1.2890 0.9609
-9.4102 -5.0755 1.3923 0.9578
-9.3754 -6.1996 1.4637 0.9557
-9.3889 8.5553 1.3640 0.9502
-9.4239 5.9051 1.1942 0.9562
-9.4239 4.7887 1.1351 0.9584
-9.4239 3.7699 1.0899 0.9600
-9.4239 2.8217 1.0563 0.9612
-9.3754 1.0516 1.0131 0.9628
-9.4103 -0.6363 1.0128 0.9628
-9.4103 -3.2901 1.0705 0.9607
-9.4102 -6.5097 1.2287 0.9550
-9.4102 -7.8427 1.3154 0.9519
15.6246 -3.2739 1.7142 0.9378
16.3186 1.0177 1.7557 0.9363
15.1299 2.3160 1.6436 0.9403
15.4504 6.9132 1.8176 0.9342
-11.4698 15.3367 2.0565 0.9258
-9.3889 8.7368 1.3772 0.9497
-9.4239 7.3113 1.2808 0.9531
-9.3889 3.8703 1.0905 0.9600
-9.3754 2.0157 1.0298 0.9622
-9.3754 1.1511 1.0143 0.9627
-9.4103 -2.2657 1.0394 0.9618
-9.4103 -3.1800 1.0666 0.9608
-9.4103 -4.1516 1.1045 0.9595
-9.4102 -6.3652 1.2199 0.9553
17.4951 5.8103 1.9796 0.9285
15.5629 6.7690 1.8224 0.9340
-11.4698 15.6761 2.0858 0.9248
-9.4239 6.1834 1.2103 0.9557
-9.4239 4.0006 1.0994 0.9596
-9.4239 3.0380 1.0632 0.9609
-9.3754 1.2508 1.0157 0.9627
-9.4103 -2.1618 1.0368 0.9619
-9.4102 -5.0756 1.1481 0.9579
-9.4102 -6.2226 1.2114 0.9556
-9.4102 -7.5146 1.2931 0.9527
-9.3889 8.5553 1.0753 0.9503
-9.4239 7.1546 1.0016 0.9536
-9.4239 5.9051 0.9414 0.9563
-9.4239 4.7887 0.8948 0.9585
-9.4103 -1.4909 0.8065 0.9625
-9.4103 -3.2901 0.8439 0.9608
-9.4102 -6.5097 0.9686 0.9551
-9.4102 -7.8427 1.0370 0.9520
13.6748 -4.1726 1.2103 0.9442
15.2059 -1.7862 1.2961 0.9404
16.5158 2.5281 1.4144 0.9351
16.5421 4.0746 1.4422 0.9339
16.0264 5.5094 1.4346 0.9342
-9.4240 12.6012 1.3320 0.9388
-9.4239 7.3113 1.0097 0.9532
-9.3754 1.1511 0.7996 0.9628
-9.4103 -1.3901 0.8052 0.9625
-9.4103 -2.2657 0.8194 0.9619
-9.4102 -7.6773 1.0281 0.9524
15.6647 -6.5535 1.4374 0.9341
13.8588 -4.3877 1.2306 0.9433
14.4619 -1.8525 1.2342 0.9432
16.4486 2.3420 1.4065 0.9355
17.8268 7.7537 1.6457 0.9249
-9.4240 12.8800 1.3510 0.9379
-9.3889 8.9220 1.0964 0.9493
-9.4239 4.0006 0.8667 0.9597
-9.4103 0.4051 0.7973 0.9629
-9.3754 -0.4371 0.7945 0.9630
-9.4103 -1.2896 0.8041 0.9626
-9.4103 -4.0345 0.8667 0.9597
-9.4102 -5.0756 0.9051 0.9580
-9.4239 5.9051 0.6896 0.9564
-9.4239 4.7887 0.6555 0.9585
-9.4239 3.7698 0.6294 0.9601
-9.4103 0.2079 0.5837 0.9630
-9.4103 -0.6363 0.5849 0.9629
-9.4103 -4.2698 0.6408 0.9594
-9.4102 -5.3327 0.6707 0.9576
-9.4102 -6.5097 0.7095 0.9552
14.4241 -3.0223 0.9139 0.9426
18.1863 6.2520 1.1925 0.9258
-9.4240 15.2842 1.1135 0.9306
-9.4240 12.6012 0.9758 0.9389
-9.3889 8.7368 0.7953 0.9499
-9.4239 4.9135 0.6590 0.9583
-9.3889 3.8703 0.6297 0.9601
-9.3754 1.1511 0.5857 0.9629
-9.4103 -0.5375 0.5845 0.9629
-9.4103 -1.3901 0.5899 0.9626
-9.4103 -2.2657 0.6002 0.9620
-9.4103 -4.1516 0.6378 0.9596
-9.4102 -5.2034 0.6668 0.9578
-9.4102 -7.6773 0.7531 0.9525
15.3399 -1.9649 0.9590 0.9399
17.2859 4.0664 1.1012 0.9313
18.2810 6.0713 1.1945 0.9257
-9.4240 15.6484 1.1327 0.9294
-9.3889 10.6772 0.8817 0.9446
-9.3889 8.9220 0.8032 0.9494
-9.4239 6.1834 0.6989 0.9558
-9.4239 5.0396 0.6627 0.9581
-9.4239 4.0006 0.6349 0.9598
-9.4239 3.0380 0.6140 0.9611
-9.3754 1.2508 0.5865 0.9628
-9.4103 0.4051 0.5841 0.9630
-9.3754 -0.4371 0.5820 0.9631
-9.4103 -1.2896 0.5890 0.9626
-9.4102 -5.0756 0.6630 0.9581
-9.4102 -7.5146 0.7468 0.9529
-4.4992 -5.1536 0.4242 0.9730
-8.5472 6.4891 0.4232 0.9580
-8.5206 5.3391 0.3965 0.9605
-8.4844 3.3940 0.3603 0.9641
-9.3754 1.9133 0.3773 0.9624
-9.3754 1.0516 0.3720 0.9629
-9.3648 -0.6332 0.3701 0.9631
-9.3648 -2.3587 0.3808 0.9621
-9.3648 -4.2492 0.4055 0.9597
-9.3648 -5.3070 0.4244 0.9578
-9.4240 15.2843 0.7080 0.9306
-8.5233 5.4658 0.3993 0.9603
-8.4740 2.6342 0.3499 0.9651
-9.3648 0.3050 0.3695 0.9632
-9.3648 -0.5349 0.3699 0.9631
-9.3648 -1.3834 0.3733 0.9628
-9.3648 -2.2548 0.3798 0.9622
-9.3754 -6.3416 0.4463 0.9557
-9.3754 -7.6488 0.4771 0.9527
-13.3272 -13.0251 0.7348 0.9281
17.6180 -7.3706 0.7530 0.9264
15.3587 -4.8626 0.6352 0.9375
18.8494 -4.1559 0.7611 0.9256
-9.4240 15.6484 0.7203 0.9295
-9.3889 8.9220 0.5107 0.9495
-8.4752 2.7322 0.3511 0.9650
-9.0851 2.0530 0.3673 0.9634
-9.3648 0.4031 0.3696 0.9632
-9.3648 -0.4366 0.3697 0.9632
-9.3648 -1.2834 0.3727 0.9629
-9.3648 -2.1514 0.3789 0.9623
-9.3648 -5.0510 0.4196 0.9583
-9.3754 -6.1996 0.4432 0.9560
-8.4642 7.7127 0.1934 0.9552
-8.4642 6.4260 0.1795 0.9584
-8.4642 5.3037 0.1687 0.9608
-8.4642 4.3010 0.1604 0.9627
-8.4642 2.5343 0.1492 0.9653
-11.1364 0.2461 0.1882 0.9564
-11.1364 -0.7530 0.1885 0.9563
-11.1364 -1.7644 0.1905 0.9559
-11.1364 -2.8049 0.1940 0.9551
-11.1364 -3.8937 0.1993 0.9539
15.5495 -6.3149 0.2835 0.9351
16.3378 -4.9851 0.2885 0.9339
-10.1030 16.3854 0.3252 0.9259
-11.3035 12.5864 0.2858 0.9346
-9.3682 8.7176 0.2162 0.9501
-8.4642 6.5668 0.1810 0.9580
-8.4642 5.4279 0.1698 0.9606
-11.2937 0.3678 0.1909 0.9558
-11.1364 -2.6813 0.1935 0.9552
-13.3265 -13.0244 0.3148 0.9282
16.0243 -6.7039 0.2934 0.9329
16.2317 -5.1390 0.2876 0.9342
-9.9310 16.4902 0.3252 0.9259
-11.3035 12.8545 0.2891 0.9338
-9.3682 8.9023 0.2183 0.9496
-8.4642 6.7098 0.1824 0.9577
-8.4642 5.5537 0.1710 0.9603
-8.4642 3.5932 0.1553 0.9639
-8.4642 2.7286 0.1502 0.9650
-9.3754 1.2508 0.1598 0.9629
-11.1364 -2.5584 0.1930 0.9553
-11.1364 -4.7746 0.2047 0.9527
-11.5923 -6.2525 0.2225 0.9487
-8.4642 6.4260 -0.0598 0.9584
-8.4642 4.3010 -0.0535 0.9627
-8.4642 3.3859 -0.0513 0.9642
-10.8421 -0.7331 -0.0612 0.9575
-10.8494 -1.7189 -0.0618 0.9570
-10.8371 -4.9172 -0.0670 0.9535
-10.7065 14.3160 -0.1006 0.9310
-10.7015 11.9162 -0.0902 0.9379
-8.4642 4.4131 -0.0537 0.9625
-9.3754 2.0157 -0.0540 0.9624
-11.2937 0.3678 -0.0636 0.9558
-10.8486 -1.6026 -0.0617 0.9571
-10.8468 -2.6116 -0.0628 0.9564
-10.8383 -4.7816 -0.0667 0.9537
-8.4642 3.5932 -0.0518 0.9639
-9.0851 2.0530 -0.0524 0.9634
-9.3754 1.2508 -0.0533 0.9629
-11.2937 0.4862 -0.0636 0.9558
-10.8402 -0.5054 -0.0611 0.9575
-8.4642 3.3859 -0.2567 0.9642
-8.4642 2.5343 -0.2488 0.9653
-10.3697 -2.6118 -0.3011 0.9581
-10.3614 -3.6227 -0.3091 0.9570
-9.9080 13.2483 -0.4658 0.9359
-10.0041 11.1396 -0.4216 0.9418
-9.3682 8.7176 -0.3603 0.9501
-8.4642 6.5668 -0.3016 0.9580
-8.4642 4.4131 -0.2688 0.9625
-8.4642 2.6312 -0.2496 0.9652
-9.3754 1.1511 -0.2660 0.9629
-10.4010 -0.5941 -0.2933 0.9592
-10.4224 -1.5396 -0.2967 0.9587
-10.3828 -2.4999 -0.3007 0.9582
-10.3504 -3.4977 -0.3076 0.9572
-10.3760 -4.5777 -0.3193 0.9556
15.8570 0.8225 -0.4471 0.9384
-8.4642 3.5932 -0.2589 0.9639
-9.0851 2.0530 -0.2623 0.9634
-11.2937 0.4862 -0.3183 0.9558
-10.3883 -0.4843 -0.2928 0.9592
-10.3959 -2.3882 -0.3004 0.9582
-10.2734 -5.5411 -0.3287 0.9544
-12.5271 7.8496 -0.7497 0.9425
-13.1422 6.6782 -0.7476 0.9427
-13.1422 5.2573 -0.7178 0.9449
-9.3754 1.9133 -0.4853 0.9624
-9.3754 1.0516 -0.4784 0.9629
-9.9143 -0.6704 -0.5039 0.9610
-9.9111 -1.5703 -0.5089 0.9606
-9.8912 -3.4583 -0.5314 0.9589
-9.7724 -5.5379 -0.5696 0.9560
-9.1300 12.2081 -0.7731 0.9408
-9.2802 10.3335 -0.7044 0.9459
-9.3682 8.7176 -0.6490 0.9500
-10.1177 7.8496 -0.6494 0.9500
-9.3754 2.0157 -0.4863 0.9623
-9.8892 -3.3419 -0.5294 0.9591
-9.7794 -5.4075 -0.5667 0.9562
-13.3231 -13.0211 -0.9448 0.9281
15.8520 0.8222 -0.8050 0.9384
-9.1129 12.4548 -0.7827 0.9401
-9.3682 8.9023 -0.6554 0.9496
-9.5364 7.5598 -0.6172 0.9524
-11.9632 7.8496 -0.7256 0.9443
-13.1422 5.5791 -0.7241 0.9444
-9.3682 2.1170 -0.4871 0.9623
-9.9110 -1.3583 -0.5073 0.9607
-9.9130 -2.2773 -0.5158 0.9601
-9.8371 -4.2175 -0.5428 0.9580
-9.7863 -5.2784 -0.5639 0.9564
-4.4956 -5.1494 -0.3467 0.9730
-9.3682 8.5364 -0.9293 0.9504
-10.3393 7.8496 -0.9518 0.9493
-13.1422 3.9350 -1.0059 0.9465
-9.4379 -0.6382 -0.6936 0.9628
-9.4283 -1.4938 -0.6999 0.9624
-9.4210 -2.3729 -0.7123 0.9618
-9.3949 -3.2848 -0.7297 0.9609
-9.3051 -4.2221 -0.7492 0.9598
-9.2280 -5.2295 -0.7777 0.9584
-9.0083 12.0453 -1.1029 0.9415
-9.0083 10.0308 -0.9885 0.9474
-12.2406 7.8496 -1.0662 0.9433
-13.1422 6.8521 -1.0867 0.9423
-13.1422 5.4175 -1.0423 0.9446
-13.1422 4.0854 -1.0091 0.9463
-9.3754 2.0157 -0.7031 0.9623
-11.2937 0.3678 -0.8285 0.9557
-9.4406 -0.5392 -0.6933 0.9628
-9.4216 -2.2684 -0.7106 0.9619
-9.4044 -3.1781 -0.7279 0.9610
-9.2380 -5.1082 -0.7740 0.9585
-13.3216 -13.0196 -1.3658 0.9280
-9.0083 10.2444 -1.0002 0.9468
-9.3682 8.9023 -0.9476 0.9495
-11.9632 7.8496 -1.0491 0.9442
-13.1422 4.2367 -1.0124 0.9461
-9.3682 2.1170 -0.7042 0.9622
-9.3754 1.2508 -0.6935 0.9628
-9.4219 -2.1645 -0.7088 0.9620
-9.3267 -3.9987 -0.7441 0.9601
-10.3393 7.8496 -1.2463 0.9492
-12.5271 7.8496 -1.4193 0.9423
-13.1422 5.2573 -1.3589 0.9447
-9.3754 1.0516 -0.9057 0.9628
-8.9948 0.1988 -0.8638 0.9645
-8.9631 -1.4201 -0.8712 0.9642
-8.9613 -3.1332 -0.9114 0.9626
-7.2188 18.4309 -1.9003 0.9235
-11.3035 15.1143 -1.8120 0.9270
-11.3035 12.5864 -1.6241 0.9343
-9.3754 2.0157 -0.9207 0.9622
-8.9804 -0.5129 -0.8636 0.9645
-8.9613 -3.0283 -0.9081 0.9627
-8.9613 -3.9535 -0.9403 0.9614
-13.3201 -13.0182 -1.7881 0.9279
15.8419 0.8217 -1.5229 0.9382
-11.3035 15.4487 -1.8378 0.9260
-13.1422 7.0280 -1.4308 0.9419
-13.1422 4.2367 -1.3257 0.9460
-9.3682 2.1170 -0.9221 0.9621
-8.9830 -0.4188 -0.8633 0.9645
-8.9613 -2.0587 -0.8827 0.9637
-8.9613 -2.9242 -0.9050 0.9628
-8.9613 -3.8420 -0.9361 0.9616
-9.3682 8.5364 -1.5055 0.9502
-12.5271 7.8496 -1.7560 0.9422
-13.1422 5.2573 -1.6814 0.9446
-13.1422 3.9350 -1.6296 0.9462
-9.3754 1.9133 -1.1366 0.9622
-8.9613 0.1980 -1.0647 0.9645
-8.9613 -2.2571 -1.0977 0.9635
-8.9613 -3.1332 -1.1277 0.9625
-8.9613 -4.0661 -1.1689 0.9611
-8.9613 -5.0783 -1.2235 0.9594
-6.9285 17.6896 -2.2567 0.9263
-7.0761 14.1782 -1.8823 0.9382
-9.3682 8.7176 -1.5201 0.9498
-13.1422 5.4175 -1.6885 0.9443
-13.1422 4.0854 -1.6348 0.9461
-9.3754 1.1511 -1.1220 0.9627
-8.9613 -1.3238 -1.0760 0.9642
-8.9613 -2.1576 -1.0949 0.9636
-8.9613 -3.0283 -1.1236 0.9626
-8.9613 -3.9535 -1.1635 0.9613
-8.9613 -4.9552 -1.2164 0.9596
-13.8082 -9.3400 -1.9802 0.9351
-11.6501 -9.5046 -1.7860 0.9412
-13.3185 -13.0167 -2.2122 0.9277
15.8368 0.8214 -1.8837 0.9381
-6.9106 18.2024 -2.3128 0.9246
-6.9939 14.3882 -1.9003 0.9376
-11.3035 15.4487 -2.2738 0.9258
-9.3682 8.9023 -1.5351 0.9493
-11.9632 7.8496 -1.6997 0.9440
-13.1422 7.0280 -1.7703 0.9417
-13.1422 5.5791 -1.6959 0.9441
-13.1422 4.2367 -1.6402 0.9459
-9.3682 2.1170 -1.1409 0.9621
-11.2937 0.4862 -1.3428 0.9555
-8.9613 -2.9242 -1.1197 0.9627
-8.9613 -4.8334 -1.2094 0.9598
-14.0450 -9.2875 -2.0001 0.9344
-11.4652 -9.1556 -1.7429 0.9426
-9.3682 8.5364 -1.7958 0.9501
-10.3393 7.8496 -1.8393 0.9489
-12.5271 7.8496 -2.0946 0.9420
-13.1422 6.6782 -2.0887 0.9422
-13.1422 5.2573 -2.0056 0.9444
-13.1422 3.9350 -1.9438 0.9461
-9.3754 1.9133 -1.3558 0.9621
-9.3754 1.0516 -1.3367 0.9626
-8.9613 0.1980 -1.2700 0.9644
-8.9613 -0.6060 -1.2726 0.9644
-8.9613 -2.2571 -1.3094 0.9634
-16.1050 -9.1266 -2.6229 0.9279
-13.3304 -9.2215 -2.2967 0.9366
-9.8324 -8.1945 -1.8135 0.9496
-6.8743 17.5513 -2.6708 0.9267
-6.9236 13.8727 -2.1968 0.9393
-7.2165 9.6494 -1.7073 0.9525
-11.3035 12.5864 -2.3970 0.9339
-9.3682 8.7176 -1.8132 0.9496
-12.2406 7.8496 -2.0603 0.9429
-13.1422 6.8521 -2.1000 0.9419
-9.3754 2.0157 -1.3588 0.9620
-8.9613 -2.1576 -1.3060 0.9634
-11.2937 -4.9825 -1.7490 0.9514
-13.4635 -9.1068 -2.3030 0.9364
-13.3170 -13.0152 -2.6384 0.9275
-6.8909 18.1507 -2.7509 0.9246
-9.5364 7.5598 -1.7243 0.9520
-13.1422 7.0280 -2.1116 0.9416
-13.1422 4.2367 -1.9565 0.9457
-9.3682 2.1170 -1.3608 0.9619
-11.2937 -0.5265 -1.6019 0.9554
-8.9613 -2.0587 -1.3028 0.9635
-11.2937 -4.8420 -1.7411 0.9516
-13.5966 -8.9909 -2.3096 0.9363
-9.3682 8.5364 -2.0879 0.9499
-10.3393 7.8496 -2.1385 0.9487
-13.1422 6.6782 -2.4285 0.9420
-13.1422 5.2573 -2.3318 0.9442
-13.1422 3.9350 -2.2600 0.9459
-9.3754 1.9133 -1.5763 0.9620
-11.2937 -0.7637 -1.8648 0.9551
-11.2937 -1.7893 -1.8837 0.9547
-11.2937 -2.8446 -1.9186 0.9539
-13.3696 -9.2487 -2.6781 0.9362
-7.1425 9.5505 -1.9647 0.9528
-7.2550 8.0784 -1.7887 0.9569
-10.1177 7.8496 -2.1096 0.9494
-12.2406 7.8496 -2.3955 0.9428
-13.1422 6.8521 -2.4416 0.9417
-13.1422 4.0854 -2.2672 0.9457
-9.3754 1.1511 -1.5561 0.9624
-11.2937 0.3678 -1.8615 0.9552
-11.2937 -1.6684 -1.8807 0.9548
-11.2937 -2.7192 -1.9137 0.9540
-11.2937 -3.8165 -1.9639 0.9528
-6.8834 14.1610 -2.5939 0.9382
-6.8834 11.4298 -2.1980 0.9473
-6.9998 9.5667 -1.9528 0.9531
-9.3682 8.9023 -2.1290 0.9490
-11.9632 7.8496 -2.3572 0.9436
-13.1422 7.0280 -2.4552 0.9414
-9.3682 2.1170 -1.5822 0.9618
-9.3754 1.2508 -1.5582 0.9624
-11.2937 0.4862 -1.8622 0.9552
-11.2937 -0.5265 -1.8625 0.9552
-11.2937 -1.5478 -1.8779 0.9548
-11.2937 -2.5945 -1.9090 0.9541
-8.4930 -6.7822 -1.7905 0.9569
-8.8436 -8.4640 -2.0166 0.9516
-10.3393 7.8496 -2.4400 0.9485
-13.1422 6.6782 -2.7708 0.9418
-13.1422 5.2573 -2.6605 0.9440
-13.1422 3.9350 -2.5786 0.9457
-9.3754 1.9133 -1.7985 0.9618
-9.3754 1.0516 -1.7733 0.9623
-11.2937 -0.7637 -2.1276 0.9550
-11.2937 -2.8446 -2.1891 0.9537
-11.2937 -3.9487 -2.2488 0.9525
-11.2937 -5.1244 -2.3311 0.9508
-8.2764 -6.8978 -2.0251 0.9571
-13.2211 -13.1948 -3.5109 0.9268
6.5824 -13.0181 -2.7419 0.9424
7.1337 -11.4354 -2.5333 0.9466
-6.4840 16.5548 -3.3418 0.9302
-6.8912 11.1764 -2.4679 0.9480
-12.2406 7.8496 -2.7332 0.9425
-13.1422 6.8521 -2.7858 0.9415
-13.1422 5.4175 -2.6719 0.9438
-13.1422 4.0854 -2.5868 0.9455
-9.3754 2.0157 -1.8025 0.9617
-9.3754 1.1511 -1.7754 0.9623
-11.2937 0.3678 -2.1239 0.9551
-11.2937 -0.6450 -2.1262 0.9550
-11.2937 -2.7192 -2.1834 0.9538
-11.2937 -3.8165 -2.2407 0.9526
-11.2937 -4.9825 -2.3202 0.9510
-7.5324 -5.0950 -1.7093 0.9637
-13.2227 -12.9230 -3.4752 0.9275
18.0668 -3.9834 -3.4774 0.9275
15.8215 0.8206 -2.9778 0.9376
-6.8519 14.0961 -2.9459 0.9382
-6.8718 11.4105 -2.5036 0.9472
-6.9420 9.4878 -2.2097 0.9533
-7.0522 8.0199 -2.0073 0.9575
-7.3481 6.9827 -1.9053 0.9596
-9.5364 7.5598 -2.2874 0.9517
-11.9632 7.8496 -2.6894 0.9434
-13.1422 7.0280 -2.8012 0.9411
-13.1422 4.2367 -2.5954 0.9454
-9.3754 1.2508 -1.7778 0.9622
-11.2937 0.4862 -2.1247 0.9550
-11.2937 -0.5265 -2.1251 0.9550
-11.2937 -1.5478 -2.1426 0.9547
-16.9487 -9.1415 -3.6195 0.9246
-8.3213 -7.9642 -2.1650 0.9542
6.8893 -11.5762 -2.5320 0.9466
-7.0845 6.4555 -2.0260 0.9616
-7.2381 5.4952 -1.9210 0.9635
-7.1987 4.5108 -1.7957 0.9659
-7.3591 3.7395 -1.7449 0.9668
-11.2937 0.2496 -2.3878 0.9549
-7.3328 -3.3272 -1.7021 0.9676
-8.2737 -6.8955 -2.2767 0.9569
-12.7589 -12.7334 -3.8103 0.9290
-10.6960 -15.3960 -3.9627 0.9262
-7.7801 -17.0561 -3.9627 0.9262
-1.3021 -18.7015 -3.9627 0.9262
0.3767 -18.7429 -3.9627 0.9262
5.3414 -17.9697 -3.9627 0.9262
6.4413 -12.7389 -3.0174 0.9433
6.7781 -10.8652 -2.7069 0.9490
11.3059 -14.9538 -3.9627 0.9262
12.5988 -13.8820 -3.9627 0.9262
13.7906 -12.6988 -3.9627 0.9262
16.0271 -8.2499 -3.8103 0.9290
16.7011 -6.7825 -3.8103 0.9290
17.4691 -3.6604 -3.7728 0.9296
11.8340 -1.3902 -2.5187 0.9525
11.8988 -0.3252 -2.5161 0.9525
17.5026 4.3111 -3.8103 0.9290
17.0466 5.8602 -3.8103 0.9290
15.4729 10.5844 -3.9627 0.9262
14.4636 11.9266 -3.9627 0.9262
13.3383 13.1731 -3.9627 0.9262
9.3604 16.2427 -3.9627 0.9262
3.0673 18.4941 -3.9627 0.9262
1.3999 18.6944 -3.9627 0.9262
-1.9550 18.6445 -3.9627 0.9262
-3.6116 18.3739 -3.9582 0.9263
-7.0489 14.1237 -3.3366 0.9375
-6.8640 11.1323 -2.7645 0.9479
-6.8682 9.1836 -2.4241 0.9542
-6.9265 6.4454 -2.0000 0.9621
-7.1515 5.5484 -1.9133 0.9637
-7.2358 4.6402 -1.8170 0.9655
-13.1422 5.4175 -3.0048 0.9435
-9.3754 1.1511 -1.9967 0.9621
-11.2937 0.3678 -2.3885 0.9549
-11.2937 -0.6450 -2.3912 0.9548
-11.2937 -1.6684 -2.4132 0.9544
-11.2937 -3.8165 -2.5199 0.9524
-11.2937 -4.9825 -2.6093 0.9508
-7.9778 -6.5086 -2.1764 0.9588
-10.8565 -15.2832 -3.9627 0.9262
-6.4072 -17.6178 -3.9627 0.9262
-4.8049 -18.1205 -3.9627 0.9262
-3.1640 -18.4778 -3.9627 0.9262
0.1806 -18.7459 -3.9627 0.9262
3.5194 -18.4134 -3.9627 0.9262
6.7454 -17.4911 -3.9627 0.9262
6.6869 -10.9731 -2.7162 0.9488
7.8641 -10.6308 -2.7952 0.9474
15.7275 -10.2022 -3.9627 0.9262
15.9399 -8.4172 -3.8103 0.9290
16.6292 -6.9569 -3.8103 0.9290
17.1850 -5.4408 -3.8103 0.9290
17.4167 -3.8400 -3.7700 0.9297
11.8298 -0.4473 -2.5024 0.9528
15.7247 0.8156 -3.3283 0.9377
17.8458 2.5409 -3.8103 0.9290
17.1070 5.6814 -3.8103 0.9290
16.5299 7.1896 -3.8103 0.9290
15.8202 8.6400 -3.8103 0.9290
15.5828 10.4219 -3.9627 0.9262
12.2550 14.1864 -3.9627 0.9262
10.9363 15.2262 -3.9627 0.9262
4.8996 18.0951 -3.9627 0.9262
1.5955 18.6787 -3.9627 0.9262
-1.7598 18.6640 -3.9627 0.9262
-4.8641 17.3571 -3.8103 0.9290
-6.3979 16.8521 -3.8103 0.9290
-6.7751 13.9382 -3.2759 0.9386
-6.8261 9.3293 -2.4435 0.9538
-7.1601 5.6761 -1.9314 0.9633
-7.1354 4.6819 -1.8040 0.9657
-13.1422 5.5791 -3.0179 0.9433
-9.3682 2.1170 -2.0302 0.9615
-11.2937 -1.5478 -2.4096 0.9545
-7.2739 -2.3736 -1.6173 0.9692
-11.2937 -4.8420 -2.5974 0.9510
-7.4583 -5.9559 -2.0175 0.9617
-8.5747 -8.2067 -2.5089 0.9526
-4.4850 -5.1373 -1.4415 0.9725
-8.1353 -16.8895 -3.9627 0.9262
-6.5912 -17.5498 -3.9627 0.9262
-4.9943 -18.0692 -3.9627 0.9262
-3.3572 -18.4437 -3.9627 0.9262
6.5620 -17.5607 -3.9627 0.9262
6.4142 -13.3732 -3.1352 0.9412
7.6716 -10.6009 -2.7660 0.9479
14.6296 -11.7225 -3.9627 0.9262
15.6199 -10.3662 -3.9627 0.9262
15.8509 -8.5835 -3.8103 0.9290
-7.1467 5.4258 -2.1089 0.9638
-7.0867 4.4406 -1.9655 0.9662
-7.3250 2.9302 -1.8542 0.9681
-7.2321 2.1654 -1.7743 0.9695
-7.3660 0.1627 -1.7316 0.9702
-7.4877 -1.8859 -1.8147 0.9688
-11.2937 -3.9487 -2.8118 0.9520
-7.0782 -3.2116 -1.8268 0.9686
-7.3711 -4.1771 -1.9912 0.9658
-7.7980 -6.4990 -2.3857 0.9591
-10.4044 -12.4334 -3.8103 0.9356
-9.6198 -13.8470 -3.9626 0.9331
-8.3422 -14.6525 -3.9627 0.9331
-5.5965 -15.9049 -3.9627 0.9331
-4.1508 -16.3419 -3.9627 0.9331
-1.1711 -16.8201 -3.9627 0.9331
1.8460 -16.7595 -3.9627 0.9331
6.3745 -12.6069 -3.3201 0.9436
11.3314 -12.4855 -3.9627 0.9331
12.4032 -11.4213 -3.9627 0.9331
13.3756 -10.2655 -3.9627 0.9331
14.2406 -9.0274 -3.9627 0.9331
15.0942 -6.1300 -3.8289 0.9352
16.1809 1.0091 -3.8103 0.9356
16.0257 2.4531 -3.8103 0.9356
15.3317 5.2706 -3.8103 0.9356
14.7124 8.2360 -3.9627 0.9331
13.0086 10.7268 -3.9627 0.9331
11.9965 11.8479 -3.9627 0.9331
7.0776 15.3034 -3.9627 0.9331
5.6797 15.8754 -3.9627 0.9331
2.7587 16.6336 -3.9627 0.9331
-1.7583 16.7689 -3.9627 0.9331
-5.9126 15.0958 -3.8103 0.9356
-7.2920 1.5678 -1.7529 0.9698
-9.3754 1.1511 -2.2200 0.9619
-11.2937 0.3678 -2.6557 0.9546
-7.4635 -0.4263 -1.7570 0.9697
-11.2937 -3.8165 -2.8017 0.9522
-7.0463 -3.8962 -1.8923 0.9675
-7.4955 -6.1151 -2.2735 0.9610
-8.4950 -14.5644 -3.9627 0.9331
-7.1576 -15.2662 -3.9627 0.9331
-5.7627 -15.8455 -3.9627 0.9331
-4.3215 -16.2976 -3.9627 0.9331
-2.8457 -16.6189 -3.9627 0.9331
0.1624 -16.8600 -3.9627 0.9331
3.1653 -16.5610 -3.9627 0.9331
4.6347 -16.2113 -3.9627 0.9331
6.0668 -15.7315 -3.9627 0.9331
6.3816 -12.9559 -3.3943 0.9424
7.5631 -10.2240 -2.9889 0.9491
12.2831 -11.5505 -3.9627 0.9331
13.2674 -10.4049 -3.9627 0.9331
15.4563 -4.8935 -3.8103 0.9356
11.5704 -1.4821 -2.7415 0.9532
11.1108 -0.4201 -2.6132 0.9553
15.7816 3.7125 -3.8103 0.9356
15.1046 6.5697 -3.8712 0.9346
14.0152 9.3735 -3.9627 0.9331
13.1201 10.5901 -3.9627 0.9331
12.1198 11.7217 -3.9627 0.9331
9.8361 13.6945 -3.9627 0.9331
8.5711 14.5198 -3.9627 0.9331
7.2373 15.2286 -3.9627 0.9331
5.8455 15.8151 -3.9627 0.9331
4.4067 16.2748 -3.9627 0.9331
2.9326 16.6038 -3.9627 0.9331
1.4350 16.7997 -3.9627 0.9331
-1.5827 16.7864 -3.9627 0.9331
-3.0786 16.5774 -3.9627 0.9331
-4.3748 15.6110 -3.8103 0.9356
-5.7543 15.1568 -3.8103 0.9356
-6.8343 11.3482 -3.1134 0.9470
-6.8968 7.8432 -2.4546 0.9580
-6.8609 6.5197 -2.2244 0.9619
-7.1114 5.6374 -2.1328 0.9634
-7.2290 3.0688 -1.8457 0.9682
-13.1422 4.2367 -3.2452 0.9448
-7.3972 1.6716 -1.7823 0.9693
-7.3731 -1.6938 -1.7780 0.9694
-7.1476 -2.3324 -1.7670 0.9696
-7.1783 -3.8717 -1.9168 0.9670
-7.5226 -4.9744 -2.1196 0.9636
-7.5342 -6.0165 -2.2660 0.9612
-8.3578 -7.9990 -2.7189 0.9536
-4.4835 -5.1355 -1.6022 0.9724
-9.5266 -13.1181 -3.8103 0.9356
-8.6470 -14.4747 -3.9627 0.9331
-7.3169 -15.1905 -3.9627 0.9331
-5.9282 -15.7843 -3.9627 0.9331
-4.4918 -16.2515 -3.9627 0.9331
-3.0195 -16.5883 -3.9627 0.9331
-0.0140 -16.8608 -3.9627 0.9331
4.4648 -16.2589 -3.9627 0.9331
6.3895 -13.3218 -3.4724 0.9411
7.3819 -10.2005 -2.9593 0.9496
11.0676 -12.7199 -3.9627 0.9331
12.1615 -11.6784 -3.9627 0.9331
13.1578 -10.5432 -3.9627 0.9331
14.0486 -9.3234 -3.9627 0.9331
14.8265 -8.0288 -3.9627 0.9331
-7.0440 3.5794 -2.0458 0.9679
-7.1904 2.8764 -2.0052 0.9685
-7.2064 1.4707 -1.9043 0.9701
-7.1992 -1.8133 -1.9222 0.9698
-7.2547 -2.5365 -1.9899 0.9687
-7.0566 -3.9989 -2.1001 0.9670
-7.7354 -6.4468 -2.6072 0.9592
-4.6722 -8.2065 -2.4450 0.9617
-6.3517 -13.9245 -3.9627 0.9387
-5.0801 -14.4371 -3.9627 0.9387
-1.0631 -15.2678 -3.9627 0.9387
1.6757 -15.2128 -3.9627 0.9387
4.3607 -14.6704 -3.9627 0.9387
7.7107 -10.1985 -3.3103 0.9485
12.1412 -9.3182 -3.9627 0.9387
12.9264 -8.1943 -3.9627 0.9387
14.1801 -5.7587 -3.9627 0.9387
14.6356 -4.4658 -3.9619 0.9387
13.1205 -2.7492 -3.4709 0.9461
10.6478 -0.2910 -2.7579 0.9569
13.9701 6.2508 -3.9627 0.9387
13.3547 7.4759 -3.9627 0.9387
11.8081 9.7368 -3.9627 0.9387
8.7978 12.5234 -3.9627 0.9387
5.1555 14.4103 -3.9627 0.9387
3.8453 14.8139 -3.9627 0.9387
2.5041 15.0985 -3.9627 0.9387
1.1429 15.2621 -3.9627 0.9387
-0.2275 15.3031 -3.9627 0.9387
-4.1191 14.1279 -3.8103 0.9410
-5.3669 13.7027 -3.8103 0.9410
-6.6404 10.7696 -3.2759 0.9491
-6.9261 9.2611 -2.9943 0.9533
-6.9399 7.7276 -2.6892 0.9580
-6.9782 3.6383 -2.0376 0.9680
-7.1391 2.9429 -1.9993 0.9686
-7.2306 1.5546 -1.9149 0.9699
-7.3220 0.8990 -1.9100 0.9700
-7.2404 -1.7433 -1.9283 0.9697
-7.0657 -2.3878 -1.9311 0.9697
-7.0021 -3.8718 -2.0717 0.9675
-7.6603 -6.2495 -2.5597 0.9600
-5.2309 -14.3831 -3.9627 0.9387
-2.5831 -15.0852 -3.9627 0.9387
-1.2227 -15.2559 -3.9627 0.9387
1.5164 -15.2295 -3.9627 0.9387
2.8732 -15.0327 -3.9627 0.9387
5.5069 -14.2797 -3.9627 0.9387
6.7627 -13.7296 -3.9627 0.9387
7.5316 -10.1813 -3.2790 0.9490
10.1665 -11.4402 -3.9627 0.9387
12.8399 -8.3291 -3.9627 0.9387
14.1190 -5.9068 -3.9627 0.9387
13.4438 -2.9641 -3.5644 0.9447
11.3247 -1.4506 -2.9561 0.9539
15.0630 0.7813 -3.9053 0.9396
15.0606 2.1444 -3.9388 0.9391
14.8810 3.5006 -3.9581 0.9388
14.5247 4.8238 -3.9627 0.9387
14.0347 6.1043 -3.9627 0.9387
11.9093 9.6127 -3.9627 0.9387
11.0013 10.6400 -3.9627 0.9387
8.9284 12.4306 -3.9627 0.9387
7.7801 13.1798 -3.9627 0.9387
6.5694 13.8231 -3.9627 0.9387
5.3060 14.3556 -3.9627 0.9387
4.0001 14.7728 -3.9627 0.9387
2.6620 15.0715 -3.9627 0.9387
1.3026 15.2493 -3.9627 0.9387
-0.0673 15.3046 -3.9627 0.9387
-2.7945 15.0475 -3.9627 0.9387
-3.9711 14.1703 -3.8103 0.9410
-6.8582 9.3733 -3.0072 0.9531
-6.8192 7.7549 -2.6738 0.9582
-6.9496 6.6040 -2.4822 0.9612
-7.2960 1.6487 -1.9367 0.9696
-7.2562 0.3124 -1.8805 0.9704
-7.0213 -3.7870 -2.0655 0.9676
-8.4815 -8.1175 -3.0397 0.9526
-4.4819 -5.1337 -1.7645 0.9722
-4.7994 -8.0340 -2.4230 0.9621
-6.6417 -13.7886 -3.9627 0.9387
-2.7408 -15.0574 -3.9627 0.9387
-0.0127 -15.3048 -3.9627 0.9387
5.3572 -14.3365 -3.9627 0.9387
6.4027 -10.7585 -3.2416 0.9496
7.3610 -10.1717 -3.2509 0.9494
10.0462 -11.5460 -3.9627 0.9387
13.4582 -7.2878 -3.9627 0.9387
-6.9057 6.2926 -2.6448 0.9619
-6.8881 5.2295 -2.4483 0.9647
-6.8636 4.3008 -2.2930 0.9669
-6.9980 3.5560 -2.2222 0.9679
-7.2849 2.1812 -2.1528 0.9689
-6.9928 0.1545 -1.9801 0.9713
-7.0463 -0.4765 -1.9993 0.9711
-6.9878 -3.1706 -2.1723 0.9686
-7.3103 -7.2957 -2.9238 0.9580
-5.8773 -7.0235 -2.5926 0.9626
-4.9612 -7.1412 -2.4616 0.9645
-4.3038 -7.5593 -2.4625 0.9645
-5.8093 -12.7354 -3.9627 0.9435
-4.6462 -13.2042 -3.9627 0.9435
-3.4460 -13.5670 -3.9627 0.9435
-2.2180 -13.8210 -3.9627 0.9435
-0.9723 -13.9640 -3.9627 0.9435
2.7716 -13.7207 -3.9627 0.9435
3.9883 -13.4176 -3.9627 0.9435
5.1731 -13.0069 -3.9627 0.9435
6.5095 -10.4348 -3.4817 0.9502
9.4073 -10.3654 -3.9627 0.9435
11.8225 -7.4945 -3.9627 0.9435
12.4458 -6.4064 -3.9627 0.9435
12.9691 -5.2669 -3.9627 0.9435
13.3884 -4.0852 -3.9627 0.9435
13.1203 -2.7492 -3.7949 0.9458
10.9838 -1.2903 -3.1308 0.9551
13.8366 2.1181 -3.9627 0.9435
12.7771 5.7170 -3.9627 0.9435
12.2142 6.8375 -3.9627 0.9435
10.7997 8.9053 -3.9627 0.9435
9.9594 9.8361 -3.9627 0.9435
9.0392 10.6879 -3.9627 0.9435
8.0465 11.4539 -3.9627 0.9435
6.9892 12.1281 -3.9627 0.9435
5.8758 12.7049 -3.9627 0.9435
4.7153 13.1797 -3.9627 0.9435
2.2903 13.8092 -3.9627 0.9435
-2.6997 13.7350 -3.9627 0.9435
-3.8265 13.1241 -3.8700 0.9448
-4.9086 12.5325 -3.8103 0.9456
-6.8859 9.2073 -3.2548 0.9533
-6.8738 7.6540 -2.9123 0.9581
-7.0085 5.4374 -2.5112 0.9638
-6.9225 4.4393 -2.3280 0.9664
-7.1315 2.2169 -2.1142 0.9694
-7.3374 0.9009 -2.0928 0.9697
-7.0466 0.2295 -1.9959 0.9711
-7.2301 -0.4129 -2.0501 0.9703
-6.9446 -1.0259 -1.9873 0.9712
-7.0038 -2.3668 -2.0929 0.9697
-6.9942 -3.0857 -2.1641 0.9687
-6.9578 -3.8473 -2.2508 0.9675
-7.0115 -4.7426 -2.3963 0.9654
-5.9953 -7.0140 -2.6121 0.9624
-4.3705 -7.4931 -2.4557 0.9646
-2.3625 -13.7970 -3.9627 0.9435
0.1348 -13.9972 -3.9627 0.9435
1.3869 -13.9289 -3.9627 0.9435
2.6278 -13.7489 -3.9627 0.9435
3.8477 -13.4586 -3.9627 0.9435
5.0367 -13.0603 -3.9627 0.9435
6.1852 -12.5572 -3.9627 0.9435
6.4558 -10.5938 -3.5120 0.9497
10.1973 -9.5892 -3.9627 0.9435
13.3450 -4.2251 -3.9627 0.9435
13.6695 -3.0139 -3.9627 0.9435
10.2963 -0.3893 -2.9169 0.9581
13.8580 1.9731 -3.9627 0.9435
13.6259 3.2054 -3.9627 0.9435
12.8362 5.5830 -3.9627 0.9435
12.2851 6.7094 -3.9627 0.9435
10.0618 9.7313 -3.9627 0.9435
4.8529 13.1297 -3.9627 0.9435
1.1913 13.9470 -3.9627 0.9435
-0.0616 13.9977 -3.9627 0.9435
-1.3140 13.9360 -3.9627 0.9435
-3.7706 13.4549 -3.9557 0.9436
-4.7772 12.5832 -3.8103 0.9456
-5.8841 12.1052 -3.8103 0.9456
-6.5034 10.7988 -3.5686 0.9489
-7.0056 6.6572 -2.7359 0.9606
-6.9360 5.4984 -2.5056 0.9639
-6.8484 4.4936 -2.3188 0.9665
-6.8644 3.6708 -2.2037 0.9682
-7.0161 2.9785 -2.1578 0.9688
-7.0094 2.2596 -2.0849 0.9698
-7.1832 0.9583 -2.0515 0.9703
-7.2223 -0.3367 -2.0468 0.9704
-7.1551 -0.9806 -2.0445 0.9704
-7.0813 -2.3107 -2.1087 0.9695
-7.0371 -3.0171 -2.1675 0.9687
-6.7634 -3.6479 -2.1754 0.9686
-7.0691 -4.6745 -2.3992 0.9654
-7.3727 -5.8875 -2.6710 0.9615
-4.0036 -8.3118 -2.6118 0.9624
-4.9216 -13.1041 -3.9627 0.9435
-3.7291 -13.4919 -3.9627 0.9435
-2.5068 -13.7715 -3.9627 0.9435
3.7067 -13.4981 -3.9627 0.9435
4.8997 -13.1123 -3.9627 0.9435
6.0535 -12.6212 -3.9627 0.9435
12.3089 -6.6655 -3.9627 0.9435
-6.8511 6.2428 -2.8509 0.9620
-6.8750 2.7502 -2.2775 0.9695
-7.1293 0.1575 -2.1934 0.9706
-6.9827 -1.1063 -2.1745 0.9708
-7.0224 -1.7688 -2.2274 0.9701
-6.7892 -2.3738 -2.2122 0.9703
-6.8428 -3.1048 -2.3112 0.9690
-6.9228 -3.9231 -2.4475 0.9672
-7.0620 -4.8852 -2.6412 0.9647
-4.1129 -7.2240 -2.5568 0.9658
-3.1716 -12.4870 -3.9627 0.9475
-2.0414 -12.7207 -3.9627 0.9475
-0.8949 -12.8524 -3.9627 0.9475
0.2589 -12.8809 -3.9627 0.9475
5.8135 -11.4973 -3.9627 0.9475
7.7699 -10.2768 -3.9627 0.9475
9.4774 -8.7271 -3.9627 0.9475
10.2204 -7.8440 -3.9627 0.9475
11.4550 -5.8964 -3.9627 0.9475
11.9367 -4.8477 -3.9627 0.9475
12.3226 -3.7600 -3.9627 0.9475
12.6096 -2.6422 -3.9627 0.9475
10.9718 0.6843 -3.3813 0.9550
12.5096 3.0813 -3.9627 0.9475
12.1837 4.1884 -3.9627 0.9475
11.7599 5.2619 -3.9627 0.9475
11.2419 6.2932 -3.9627 0.9475
9.9400 8.1964 -3.9627 0.9475
8.3196 9.8371 -3.9627 0.9475
7.4059 10.5421 -3.9627 0.9475
6.4328 11.1626 -3.9627 0.9475
5.4080 11.6935 -3.9627 0.9475
4.3399 12.1305 -3.9627 0.9475
3.2369 12.4702 -3.9627 0.9475
-0.1915 12.8821 -3.9627 0.9475
-2.4848 12.6416 -3.9627 0.9475
-5.5320 11.0842 -3.8103 0.9495
-6.5017 10.5447 -3.8103 0.9495
-6.9409 7.7287 -3.1951 0.9575
-6.9027 6.4233 -2.9002 0.9613
-7.0723 5.4870 -2.7532 0.9632
-6.8625 4.4008 -2.5075 0.9665
-6.9532 2.1615 -2.2396 0.9700
-7.0123 -0.4005 -2.1603 0.9710
-6.9944 -1.6841 -2.2128 0.9703
-6.7643 -2.9843 -2.2740 0.9695
-6.9994 -3.8703 -2.4601 0.9671
-7.0170 -4.7464 -2.6057 0.9652
-7.8096 -6.3714 -3.1000 0.9587
-6.9088 -6.7522 -2.9713 0.9604
-5.9089 -6.9129 -2.7972 0.9627
-4.9937 -7.0299 -2.6523 0.9646
-4.1952 -7.1924 -2.5610 0.9658
-4.4033 -12.1076 -3.9627 0.9475
-2.1744 -12.6987 -3.9627 0.9475
-1.0293 -12.8423 -3.9627 0.9475
1.2765 -12.8201 -3.9627 0.9475
2.4186 -12.6544 -3.9627 0.9475
3.5414 -12.3872 -3.9627 0.9475
7.6619 -10.3576 -3.9627 0.9475
8.5581 -9.6303 -3.9627 0.9475
10.1377 -7.9505 -3.9627 0.9475
11.3926 -6.0160 -3.9627 0.9475
11.8853 -4.9723 -3.9627 0.9475
12.2826 -3.8887 -3.9627 0.9475
12.5813 -2.7740 -3.9627 0.9475
11.1386 -1.4268 -3.4540 0.9541
12.2268 4.0607 -3.9627 0.9475
10.7091 7.1623 -3.9627 0.9475
10.0252 8.0920 -3.9627 0.9475
8.4221 9.7495 -3.9627 0.9475
6.5493 11.0946 -3.9627 0.9475
4.4666 12.0844 -3.9627 0.9475
3.3672 12.4357 -3.9627 0.9475
2.2408 12.6871 -3.9627 0.9475
-1.2094 12.8266 -3.9627 0.9475
-3.4749 12.3996 -3.9608 0.9475
-5.4157 11.1415 -3.8103 0.9495
-6.3910 10.6121 -3.8103 0.9495
-6.5098 8.8971 -3.3909 0.9549
-6.8962 3.6878 -2.4054 0.9678
-7.0369 2.9873 -2.3514 0.9685
-7.3504 0.3164 -2.2629 0.9697
-6.9961 -0.9588 -2.1720 0.9709
-6.8052 -2.2207 -2.2018 0.9705
-4.4787 -5.1301 -2.0946 0.9719
-5.0969 -7.0185 -2.6679 0.9644
-3.7155 -7.7137 -2.6335 0.9648
-3.4323 -12.4179 -3.9627 0.9475
-1.1636 -12.8308 -3.9627 0.9475
1.1423 -12.8327 -3.9627 0.9475
2.2861 -12.6790 -3.9627 0.9475
3.4116 -12.4236 -3.9627 0.9475
4.5097 -12.0684 -3.9627 0.9475
8.4568 -9.7194 -3.9627 0.9475
10.0540 -8.0561 -3.9627 0.9475
10.7346 -7.1241 -3.9627 0.9475
-7.0065 6.3844 -3.1509 0.9608
-6.8046 4.2639 -2.6693 0.9667
-7.1863 2.8748 -2.5728 0.9679
-7.0008 2.0962 -2.4292 0.9697
-6.9939 0.7845 -2.3394 0.9708
-6.8802 -1.7329 -2.3585 0.9705
-6.9487 -3.9378 -2.6549 0.9669
-6.7684 -6.7549 -3.1786 0.9605
-5.7338 -6.8520 -2.9699 0.9630
-4.8275 -6.9489 -2.8125 0.9650
-3.4290 -7.5172 -2.7465 0.9658
-0.8280 -11.8924 -3.9627 0.9510
0.2396 -11.9188 -3.9627 0.9510
1.3052 -11.8496 -3.9627 0.9510
6.3097 -10.1145 -3.9627 0.9510
4.8244 -6.3810 -2.6591 0.9668
5.6042 -5.1605 -2.5324 0.9684
10.5994 -5.4560 -3.9627 0.9510
11.0451 -4.4856 -3.9627 0.9510
10.9132 -1.2820 -3.6525 0.9547
10.2235 -0.2794 -3.3996 0.9578
11.8981 0.7420 -3.9627 0.9510
11.7840 1.8038 -3.9627 0.9510
11.5753 2.8511 -3.9627 0.9510
10.8816 4.8689 -3.9627 0.9510
9.1976 7.5842 -3.9627 0.9510
8.4819 8.3769 -3.9627 0.9510
7.6982 9.1024 -3.9627 0.9510
5.0041 10.8201 -3.9627 0.9510
1.9505 11.7606 -3.9627 0.9510
0.8902 11.8879 -3.9627 0.9510
-0.1772 11.9199 -3.9627 0.9510
-1.2432 11.8562 -3.9627 0.9510
-2.2992 11.6974 -3.9627 0.9510
-4.1804 10.6733 -3.8103 0.9528
-6.9388 6.4569 -3.1506 0.9608
-6.9975 5.4289 -2.9440 0.9634
-6.9912 2.1733 -2.4336 0.9696
-7.0788 0.8691 -2.3707 0.9704
-6.9067 -0.3945 -2.2996 0.9713
-6.9117 -1.0210 -2.3224 0.9710
-6.9491 -1.6732 -2.3759 0.9703
-6.8765 -2.3238 -2.4128 0.9699
-6.8406 -3.0179 -2.4853 0.9690
-7.6362 -6.2299 -3.2759 0.9593
-6.8808 -6.7248 -3.1982 0.9603
-4.9280 -6.9373 -2.8286 0.9648
-4.1226 -7.0680 -2.7199 0.9661
-3.4914 -7.4467 -2.7339 0.9659
-4.0744 -11.2033 -3.9627 0.9510
-0.9524 -11.8831 -3.9627 0.9510
0.1148 -11.9207 -3.9627 0.9510
5.2676 -10.6943 -3.9627 0.9510
6.2036 -10.1800 -3.9627 0.9510
7.0897 -9.5840 -3.9627 0.9510
4.9844 -5.6089 -2.4942 0.9689
10.0013 -6.4877 -3.9627 0.9510
10.5417 -5.5666 -3.9627 0.9510
11.3652 -3.5983 -3.9627 0.9510
11.6416 -2.5668 -3.9627 0.9510
10.1862 -0.3851 -3.3884 0.9579
10.8915 0.5649 -3.6253 0.9551
11.6045 2.7299 -3.9627 0.9510
9.2764 7.4876 -3.9627 0.9510
8.5691 8.2877 -3.9627 0.9510
6.9545 9.6825 -3.9627 0.9510
6.0601 10.2660 -3.9627 0.9510
4.1330 11.1819 -3.9627 0.9510
1.0146 11.8780 -3.9627 0.9510
-1.1191 11.8686 -3.9627 0.9510
-2.1767 11.7208 -3.9627 0.9510
-5.0112 10.3094 -3.8103 0.9528
-6.5098 8.8971 -3.6646 0.9546
-6.5149 7.4088 -3.2795 0.9593
-6.8549 6.5140 -3.1433 0.9609
-7.1450 3.8209 -2.6933 0.9664
-6.9837 2.9647 -2.5220 0.9685
-6.8832 2.2189 -2.4040 0.9700
-7.0536 1.5939 -2.4038 0.9700
-6.8917 0.9194 -2.3111 0.9711
-6.9924 -0.9583 -2.3460 0.9707
-7.0014 -1.6084 -2.3879 0.9702
-6.9217 -2.9676 -2.5033 0.9688
-6.8827 -3.7123 -2.5994 0.9676
-7.0176 -6.7164 -3.2289 0.9599
-5.0294 -6.9255 -2.8451 0.9646
-4.2135 -7.0532 -2.7310 0.9660
-3.5526 -7.3755 -2.7212 0.9661
-4.1914 -11.1601 -3.9627 0.9510
-3.1759 -11.4904 -3.9627 0.9510
-2.1349 -11.7285 -3.9627 0.9510
1.0569 -11.8743 -3.9627 0.9510
2.1154 -11.7320 -3.9627 0.9510
3.1568 -11.4957 -3.9627 0.9510
6.0967 -10.2443 -3.9627 0.9510
6.9890 -9.6576 -3.9627 0.9510
4.9392 -5.6765 -2.5012 0.9688
5.4413 -5.2252 -2.5076 0.9687
9.9328 -6.5920 -3.9627 0.9510
-6.9925 5.3087 -3.1396 0.9634
-6.9243 4.3388 -2.9221 0.9659
-7.0197 3.5670 -2.8158 0.9671
-6.9130 2.0699 -2.5806 0.9698
-6.9434 0.1534 -2.4836 0.9709
-6.9317 -0.4687 -2.4845 0.9709
-7.0098 -1.1106 -2.5380 0.9703
-6.8673 -2.4011 -2.6016 0.9696
-6.8445 -3.1056 -2.6878 0.9686
-6.8177 -3.8635 -2.8023 0.9673
-7.1094 -4.9181 -3.0914 0.9639
-6.7362 -6.7228 -3.4033 0.9604
-5.6941 -6.8046 -3.1730 0.9630
-3.9677 -6.9690 -2.8678 0.9665
-3.3073 -7.2504 -2.8498 0.9667
-3.6781 -10.4529 -3.9627 0.9540
-1.7558 -10.9411 -3.9627 0.9540
0.2227 -11.0789 -3.9627 0.9540
4.0952 -10.2966 -3.9627 0.9540
5.2073 -4.7951 -2.5314 0.9704
6.0057 -4.6093 -2.7073 0.9684
10.3215 -0.2821 -3.6924 0.9571
11.0596 0.6897 -3.9627 0.9540
10.9535 1.6767 -3.9627 0.9540
10.7595 2.6502 -3.9627 0.9540
10.1148 4.5258 -3.9627 0.9540
9.1460 6.2564 -3.9627 0.9540
6.3698 9.0673 -3.9627 0.9540
4.6515 10.0576 -3.9627 0.9540
3.7328 10.4335 -3.9627 0.9540
2.7841 10.7257 -3.9627 0.9540
1.8131 10.9318 -3.9627 0.9540
-0.1647 11.0799 -3.9627 0.9540
-1.1556 11.0207 -3.9627 0.9540
-6.3813 8.5327 -3.8103 0.9557
-6.5154 7.2549 -3.4871 0.9594
-7.0177 1.5088 -2.5669 0.9700
-6.9795 0.8569 -2.5147 0.9706
-6.8470 -0.3911 -2.4525 0.9713
-6.9346 -1.0244 -2.5068 0.9707
-6.9406 -1.6711 -2.5529 0.9701
-7.4139 -6.0486 -3.4217 0.9602
-5.8111 -6.7986 -3.1983 0.9627
-4.8830 -6.8741 -3.0153 0.9648
-4.0562 -6.9543 -2.8790 0.9664
-3.3727 -7.1936 -2.8412 0.9668
-1.8702 -10.9221 -3.9627 0.9540
-0.8853 -11.0457 -3.9627 0.9540
0.1067 -11.0806 -3.9627 0.9540
1.0979 -11.0266 -3.9627 0.9540
2.0803 -10.8841 -3.9627 0.9540
4.1619 -6.8297 -2.8601 0.9666
4.6454 -5.2275 -2.5009 0.9707
5.1397 -4.8332 -2.5230 0.9705
5.8870 -4.6169 -2.6754 0.9687
9.2964 -6.0305 -3.9627 0.9540
9.7988 -5.1743 -3.9627 0.9540
11.0662 0.5740 -3.9627 0.9540
10.9705 1.5620 -3.9627 0.9540
10.5163 3.4926 -3.9627 0.9540
4.7564 10.0083 -3.9627 0.9540
3.8417 10.3938 -3.9627 0.9540
2.8962 10.6959 -3.9627 0.9540
1.9273 10.9122 -3.9627 0.9540
-0.0487 11.0810 -3.9627 0.9540
-1.0402 11.0322 -3.9627 0.9540
-3.8359 10.1038 -3.8648 0.9551
-4.6580 9.5828 -3.8103 0.9557
-5.4969 9.1275 -3.8103 0.9557
-6.2917 8.5990 -3.8103 0.9557
-6.5149 7.4088 -3.5281 0.9590
-6.6405 6.3103 -3.2759 0.9618
-6.9196 5.4854 -3.1577 0.9632
-6.9095 4.5337 -2.9553 0.9655
-6.9714 3.7280 -2.8271 0.9670
-6.8841 2.9224 -2.6744 0.9687
-6.8880 2.2205 -2.5880 0.9697
-6.9517 1.5709 -2.5486 0.9702
-6.9459 0.2990 -2.4862 0.9709
-7.0578 -0.9672 -2.5475 0.9702
-6.9544 -1.5976 -2.5517 0.9701
-6.9403 -2.2648 -2.6107 0.9695
-6.7575 -2.8972 -2.6293 0.9692
-4.9836 -6.8624 -3.0329 0.9646
-4.1477 -6.9432 -2.8922 0.9662
-3.8960 -10.3736 -3.9627 0.9540
-2.9521 -10.6806 -3.9627 0.9540
-1.9844 -10.9020 -3.9627 0.9540
-1.0008 -11.0358 -3.9627 0.9540
0.9825 -11.0375 -3.9627 0.9540
2.9343 -10.6855 -3.9627 0.9540
3.8788 -10.3801 -3.9627 0.9540
4.7921 -9.9913 -3.9627 0.9540
5.6670 -9.5224 -3.9627 0.9540
4.2818 -5.9167 -2.6118 0.9695
5.0719 -4.8704 -2.5146 0.9706
9.2328 -6.1274 -3.9627 0.9540
-7.0914 1.4472 -2.7735 0.9695
-6.9817 0.1543 -2.6762 0.9705
-7.0581 -0.4773 -2.7110 0.9702
-6.8246 -3.0966 -2.8719 0.9684
-7.0302 -4.8632 -3.2759 0.9640
-7.4863 -6.2392 -3.7346 0.9591
-4.7535 -6.8423 -3.1927 0.9649
-3.9324 -6.9070 -3.0458 0.9665
-3.4323 -9.7543 -3.9627 0.9567
-0.7182 -10.3156 -3.9627 0.9567
0.2078 -10.3385 -3.9627 0.9567
1.1321 -10.2784 -3.9627 0.9567
2.0474 -10.1358 -3.9627 0.9567
2.9463 -9.9119 -3.9627 0.9567
3.8215 -9.6085 -3.9627 0.9567
4.6660 -9.2280 -3.9627 0.9567
3.8398 -6.1552 -2.7801 0.9694
4.1113 -5.4378 -2.6124 0.9712
4.4769 -4.9328 -2.5528 0.9719
5.5884 -4.2890 -2.6996 0.9703
10.1208 -2.1206 -3.9627 0.9567
10.2699 -1.2064 -3.9627 0.9567
10.3367 -0.2825 -3.9627 0.9567
10.3205 0.6436 -3.9627 0.9567
10.0404 2.4731 -3.9627 0.9567
9.7788 3.3617 -3.9627 0.9567
9.4388 4.2233 -3.9627 0.9567
7.9780 6.5786 -3.9627 0.9567
7.3573 7.2662 -3.9627 0.9567
6.6775 7.8954 -3.9627 0.9567
5.9442 8.4613 -3.9627 0.9567
1.6919 10.2012 -3.9627 0.9567
-1.0784 10.2842 -3.9627 0.9567
-1.9944 10.1464 -3.9627 0.9567
-2.8944 9.9272 -3.9627 0.9567
-3.7648 9.6121 -3.9560 0.9567
-6.5194 6.0666 -3.4127 0.9626
-6.9168 4.4356 -3.1489 0.9654
-7.0614 0.8670 -2.7264 0.9700
-6.9581 -1.0279 -2.6954 0.9703
-6.8490 -1.6491 -2.6997 0.9703
-6.7978 -2.9990 -2.8473 0.9687
-7.0060 -3.8740 -3.0679 0.9663
-6.8594 -6.7039 -3.6756 0.9597
-5.8074 -6.7942 -3.4252 0.9624
-3.3232 -7.0879 -2.9999 0.9670
-2.6504 -9.9951 -3.9627 0.9567
1.0245 -10.2897 -3.9627 0.9567
1.9412 -10.1567 -3.9627 0.9567
3.7207 -9.6480 -3.9627 0.9567
4.5692 -9.2763 -3.9627 0.9567
3.8083 -6.2494 -2.8045 0.9691
4.4338 -4.9893 -2.5579 0.9718
4.8542 -4.5647 -2.5535 0.9719
5.4946 -4.3092 -2.6759 0.9705
6.5748 -4.2650 -3.0033 0.9670
9.1440 -4.8285 -3.9627 0.9567
9.5394 -3.9909 -3.9627 0.9567
10.3332 -0.3907 -3.9627 0.9567
10.2373 1.4576 -3.9627 0.9567
9.8135 3.2592 -3.9627 0.9567
9.4824 4.1243 -3.9627 0.9567
9.0753 4.9564 -3.9627 0.9567
8.5953 5.7486 -3.9627 0.9567
6.7598 7.8251 -3.9627 0.9567
6.0324 8.3987 -3.9627 0.9567
4.4386 9.3395 -3.9627 0.9567
0.8801 10.3030 -3.9627 0.9567
-0.0455 10.3404 -3.9627 0.9567
-0.9707 10.2949 -3.9627 0.9567
-3.6656 9.6551 -3.9577 0.9567
-4.3467 8.9424 -3.8103 0.9583
-5.1296 8.5175 -3.8103 0.9583
-5.8712 8.0243 -3.8103 0.9583
-6.5149 7.4088 -3.7808 0.9586
-6.5190 6.1948 -3.4462 0.9622
-6.6988 5.3104 -3.2759 0.9640
-6.9996 1.5817 -2.7500 0.9697
-6.9871 0.9322 -2.7013 0.9703
-7.0041 -0.9599 -2.7092 0.9702
-6.9492 -2.2676 -2.8012 0.9692
-6.7383 -3.6344 -2.9339 0.9677
-7.0521 -4.6633 -3.2399 0.9644
-7.3441 -5.8647 -3.6016 0.9605
-6.9956 -6.6953 -3.7108 0.9594
-4.9565 -6.8252 -3.2325 0.9645
-4.1072 -6.8753 -3.0691 0.9663
-3.4010 -7.0608 -3.0033 0.9670
-1.8518 -10.1734 -3.9627 0.9567
-0.9340 -10.2983 -3.9627 0.9567
-0.0086 -10.3405 -3.9627 0.9567
0.9168 -10.2998 -3.9627 0.9567
2.7382 -9.9714 -3.9627 0.9567
3.6196 -9.6864 -3.9627 0.9567
3.7760 -6.3448 -2.8295 0.9689
4.7967 -4.6062 -2.5485 0.9719
6.3920 -4.2421 -2.9399 0.9677
9.0929 -4.9240 -3.9627 0.9567
-6.5232 4.9524 -3.3520 0.9652
-6.8233 3.4672 -3.1325 0.9675
-6.8516 2.7408 -3.0202 0.9686
-6.9702 2.0870 -2.9779 0.9690
-6.9821 -0.4721 -2.8641 0.9702
-6.9402 -4.8010 -3.4539 0.9642
-7.1517 -5.9604 -3.8103 0.9606
-6.5896 -6.5765 -3.8103 0.9606
-4.7413 -6.8247 -3.4011 0.9647
-3.9144 -6.8755 -3.2381 0.9664
-3.2674 -7.1631 -3.2223 0.9665
-2.3835 -9.3842 -3.9627 0.9590
-0.6725 -9.6588 -3.9627 0.9590
2.7587 -9.2809 -3.9627 0.9590
3.5782 -8.9968 -3.9627 0.9590
4.3689 -8.6405 -3.9627 0.9590
3.6766 -5.8936 -2.8430 0.9704
4.0513 -5.3585 -2.7493 0.9714
4.4234 -4.8739 -2.6938 0.9720
4.7940 -4.4145 -2.6672 0.9722
6.0796 -3.8540 -2.9461 0.9694
8.9707 -3.6431 -3.9627 0.9590
9.4764 -1.9856 -3.9627 0.9590
9.6161 -1.1296 -3.9627 0.9590
9.6786 -0.2645 -3.9627 0.9590
9.4012 2.3157 -3.9627 0.9590
9.1563 3.1477 -3.9627 0.9590
7.4701 6.1598 -3.9627 0.9590
6.8889 6.8036 -3.9627 0.9590
5.5657 7.9226 -3.9627 0.9590
3.2615 9.1163 -3.9627 0.9590
2.4326 9.3716 -3.9627 0.9590
-1.0097 9.6294 -3.9627 0.9590
-2.7101 9.2952 -3.9627 0.9590
-3.5287 9.0094 -3.9600 0.9590
-4.8862 7.9246 -3.8103 0.9606
-5.5757 7.4555 -3.8103 0.9606
-6.2206 6.9266 -3.8103 0.9606
-6.7377 4.3208 -3.2759 0.9660
-7.0762 3.6894 -3.2661 0.9661
-6.8937 1.4822 -2.8859 0.9700
-6.9727 0.2271 -2.8553 0.9703
-6.9438 -0.3966 -2.8466 0.9704
-6.9391 -1.6707 -2.9211 0.9696
-6.8781 -2.3244 -2.9714 0.9691
-6.8001 -3.0000 -3.0419 0.9684
-6.8858 -4.6576 -3.4023 0.9647
-7.2137 -5.8852 -3.8103 0.9606
-4.8453 -6.8210 -3.4243 0.9645
-4.0070 -6.8699 -3.2550 0.9662
-1.6341 -9.5433 -3.9627 0.9590
-0.7735 -9.6513 -3.9627 0.9590
0.0933 -9.6818 -3.9627 0.9590
2.6614 -9.3092 -3.9627 0.9590
4.2783 -8.6857 -3.9627 0.9590
3.6370 -5.9682 -2.8604 0.9702
4.0036 -5.4121 -2.7552 0.9713
4.3807 -4.9295 -2.6991 0.9719
5.2044 -4.0815 -2.7069 0.9718
8.9321 -3.7368 -3.9627 0.9590
9.4551 -2.0847 -3.9627 0.9590
9.6037 -1.2302 -3.9627 0.9590
9.5855 1.3648 -3.9627 0.9590
9.4249 2.2171 -3.9627 0.9590
8.8787 3.8617 -3.9627 0.9590
8.4975 4.6408 -3.9627 0.9590
6.9597 6.7311 -3.9627 0.9590
5.6483 7.8639 -3.9627 0.9590
4.9219 8.3379 -3.9627 0.9590
4.1560 8.7449 -3.9627 0.9590
3.3567 9.0817 -3.9627 0.9590
-0.0426 9.6821 -3.9627 0.9590
-0.9089 9.6394 -3.9627 0.9590
-2.6127 9.3230 -3.9627 0.9590
-3.4356 9.0494 -3.9616 0.9590
-4.0700 8.3731 -3.8103 0.9606
-4.8030 7.9752 -3.8103 0.9606
-6.5190 6.1948 -3.6806 0.9619
-6.5224 5.1705 -3.4065 0.9647
-6.6921 4.3910 -3.2759 0.9660
-6.9450 1.5694 -2.9141 0.9697
-7.0885 0.9457 -2.9268 0.9696
-6.9447 -0.3238 -2.8454 0.9704
-6.9318 -1.5925 -2.9109 0.9697
-6.9065 -3.7251 -3.2116 0.9667
-7.2749 -5.8094 -3.8103 0.9606
-6.7258 -6.4371 -3.8103 0.9606
-3.3887 -7.0352 -3.1960 0.9668
-1.7339 -9.5257 -3.9627 0.9590
-0.8745 -9.6426 -3.9627 0.9590
-0.0081 -9.6822 -3.9627 0.9590
1.7181 -9.5286 -3.9627 0.9590
3.3891 -9.0697 -3.9627 0.9590
4.3377 -4.9853 -2.7046 0.9718
5.8977 -3.9141 -2.8970 0.9699
6.6089 -3.5788 -3.0760 0.9680
-6.4624 5.8886 -3.8103 0.9626
-6.7011 3.4052 -3.2759 0.9677
-6.9628 2.7853 -3.2683 0.9678
-7.0664 2.1158 -3.2147 0.9683
-7.1103 1.4510 -3.1627 0.9688
-6.8819 -2.4062 -3.1773 0.9687
-6.8450 -3.1058 -3.2759 0.9677
-6.9402 -4.8010 -3.6779 0.9638
-6.7162 -5.5974 -3.8103 0.9626
-5.6108 -6.7050 -3.8103 0.9626
-4.9883 -7.1802 -3.8103 0.9626
-3.9092 -6.8663 -3.4434 0.9661
-3.0181 -8.5770 -3.9627 0.9611
-2.2384 -8.8127 -3.9627 0.9611
-1.4408 -8.9777 -3.9627 0.9611
0.9955 -9.0379 -3.9627 0.9611
1.8003 -8.9125 -3.9627 0.9611
3.3603 -8.4488 -3.9627 0.9611
4.1029 -8.1142 -3.9627 0.9611
3.6018 -5.7737 -2.9657 0.9707
3.9926 -5.2808 -2.8852 0.9715
4.3733 -4.8187 -2.8360 0.9720
4.7462 -4.3705 -2.8119 0.9722
5.1219 -3.9310 -2.8138 0.9722
5.7666 -3.6555 -2.9756 0.9706
9.0304 -1.0608 -3.9627 0.9611
9.0892 -0.2484 -3.9627 0.9611
8.9879 1.3758 -3.9627 0.9611
8.8287 2.1746 -3.9627 0.9611
8.2996 3.7136 -3.9627 0.9611
7.9340 4.4414 -3.9627 0.9611
7.5047 5.1336 -3.9627 0.9611
7.0151 5.7846 -3.9627 0.9611
5.8716 6.9425 -3.9627 0.9611
4.5400 7.8780 -3.9627 0.9611
1.4877 8.9700 -3.9627 0.9611
0.6790 9.0672 -3.9627 0.9611
-0.1352 9.0915 -3.9627 0.9611
-2.5450 8.7291 -3.9627 0.9611
-3.3160 8.4663 -3.9627 0.9611
-4.5886 7.4419 -3.8103 0.9626
-6.5228 5.0606 -3.5980 0.9646
-6.5257 4.1848 -3.3786 0.9667
-7.0364 2.9006 -3.3169 0.9673
-6.8431 2.1272 -3.1231 0.9692
-7.0102 1.5072 -3.1250 0.9692
-6.9758 0.8565 -3.0630 0.9698
-6.8771 -2.3240 -3.1637 0.9688
-6.9266 -3.0559 -3.2995 0.9675
-6.8858 -4.6576 -3.6230 0.9644
-6.2526 -6.1109 -3.8103 0.9626
-4.0017 -6.8607 -3.4614 0.9659
-3.3197 -7.0805 -3.4081 0.9665
-0.7264 -9.0635 -3.9627 0.9611
0.0876 -9.0921 -3.9627 0.9611
0.9009 -9.0478 -3.9627 0.9611
1.7070 -8.9309 -3.9627 0.9611
3.2717 -8.4835 -3.9627 0.9611
4.0177 -8.1567 -3.9627 0.9611
3.5624 -5.8459 -2.9835 0.9706
4.3280 -4.8702 -2.8395 0.9720
4.7036 -4.4231 -2.8139 0.9722
5.6753 -3.6815 -2.9482 0.9709
6.2488 -3.2997 -3.0797 0.9696
8.8793 -1.9577 -3.9627 0.9611
9.0189 -1.1552 -3.9627 0.9611
9.0861 -0.3435 -3.9627 0.9611
9.0803 0.4710 -3.9627 0.9611
9.0018 1.2817 -3.9627 0.9611
7.5580 5.0548 -3.9627 0.9611
7.0753 5.7109 -3.9627 0.9611
3.9029 8.2123 -3.9627 0.9611
2.3764 8.7765 -3.9627 0.9611
1.5815 8.9540 -3.9627 0.9611
-2.4536 8.7552 -3.9627 0.9611
-3.8475 7.9153 -3.8356 0.9623
-4.5105 7.4895 -3.8103 0.9626
-5.1626 7.0558 -3.8103 0.9626
-6.3377 6.0225 -3.8103 0.9626
-6.5254 4.2816 -3.4014 0.9665
-7.0068 1.5833 -3.1307 0.9691
-6.8995 0.2970 -3.0097 0.9703
-6.8845 -0.3210 -3.0037 0.9704
-6.9260 -1.5911 -3.0971 0.9695
-6.6157 -3.5683 -3.2759 0.9677
-6.3162 -6.0451 -3.8103 0.9626
-4.4703 -5.1204 -2.9624 0.9708
-4.0951 -6.8550 -3.4800 0.9658
-2.4223 -8.7639 -3.9627 0.9611
-1.6283 -8.9456 -3.9627 0.9611
2.4077 -8.7680 -3.9627 0.9611
3.1827 -8.5173 -3.9627 0.9611
3.9322 -8.1983 -3.9627 0.9611
3.8980 -5.3864 -2.8977 0.9714
4.6618 -4.4766 -2.8167 0.9722
-6.5232 4.9524 -3.7911 0.9645
-6.5287 3.3175 -3.3898 0.9682
-6.5709 2.6285 -3.2759 0.9693
-6.7797 2.0300 -3.2759 0.9693
-6.9638 0.7811 -3.2437 0.9696
-7.0415 0.1556 -3.2602 0.9694
-6.7964 -0.4596 -3.1531 0.9704
-7.0844 -1.1224 -3.3201 0.9689
-6.8628 -1.7285 -3.2759 0.9693
-6.6806 -2.3357 -3.2759 0.9693
-6.5293 -3.7001 -3.4739 0.9675
-6.7697 -4.6830 -3.8103 0.9644
-5.8264 -5.8148 -3.8103 0.9644
-5.2827 -6.3129 -3.8103 0.9644
-4.6965 -6.7603 -3.8103 0.9644
-3.9039 -6.8569 -3.6523 0.9658
-3.5528 -7.7888 -3.9627 0.9630
-2.8416 -8.0755 -3.9627 0.9630
-2.1075 -8.2974 -3.9627 0.9630
-1.3565 -8.4527 -3.9627 0.9630
-0.5946 -8.5402 -3.9627 0.9630
0.1720 -8.5591 -3.9627 0.9630
3.1638 -7.9548 -3.9627 0.9630
3.8629 -7.6397 -3.9627 0.9630
3.5679 -5.7193 -3.1203 0.9707
3.9425 -5.2145 -3.0260 0.9716
4.6995 -4.3274 -2.9571 0.9722
5.4838 -3.4763 -3.0054 0.9718
7.9317 -3.2212 -3.9627 0.9630
8.5024 -0.9988 -3.9627 0.9630
8.5576 -0.2339 -3.9627 0.9630
8.5442 0.5329 -3.9627 0.9630
8.3124 2.0475 -3.9627 0.9630
8.0958 2.7831 -3.9627 0.9630
7.4700 4.1817 -3.9627 0.9630
5.5282 6.5366 -3.9627 0.9630
4.9211 7.0050 -3.9627 0.9630
-0.8927 8.5142 -3.9627 0.9630
-1.6511 8.4001 -3.9627 0.9630
-2.3962 8.2186 -3.9627 0.9630
-4.3203 7.0068 -3.8103 0.9644
-4.9300 6.5920 -3.8103 0.9644
-6.0261 5.6076 -3.8103 0.9644
-6.5257 4.1848 -3.5884 0.9664
-6.5284 3.4038 -3.4080 0.9681
-6.7581 2.1008 -3.2759 0.9693
-6.9531 1.4949 -3.2920 0.9691
-6.9816 0.8572 -3.2560 0.9695
-6.9478 -0.3968 -3.2213 0.9698
-7.0026 -1.6860 -3.3340 0.9688
-6.7046 -2.2657 -3.2759 0.9693
-6.3782 -5.2036 -3.8103 0.9644
-5.8870 -5.7535 -3.8103 0.9644
-4.4098 -5.1592 -3.1416 0.9705
-3.9962 -6.8513 -3.6714 0.9656
-3.6342 -7.7512 -3.9627 0.9630
-1.4449 -8.4380 -3.9627 0.9630
-0.6840 -8.5335 -3.9627 0.9630
0.8482 -8.5187 -3.9627 0.9630
1.6071 -8.4086 -3.9627 0.9630
3.8974 -5.2685 -3.0335 0.9715
4.2820 -4.8185 -2.9839 0.9720
5.8927 -3.1117 -3.0846 0.9711
7.8976 -3.3040 -3.9627 0.9630
8.5547 -0.3234 -3.9627 0.9630
8.5493 0.4434 -3.9627 0.9630
8.4754 1.2067 -3.9627 0.9630
8.3334 1.9604 -3.9627 0.9630
7.1160 4.7592 -3.9627 0.9630
6.6615 5.3770 -3.9627 0.9630
5.5963 6.4783 -3.9627 0.9630
4.9941 6.9532 -3.9627 0.9630
4.3519 7.3722 -3.9627 0.9630
3.6746 7.7321 -3.9627 0.9630
1.4890 8.4304 -3.9627 0.9630
-2.3101 8.2433 -3.9627 0.9630
-4.8607 6.6432 -3.8103 0.9644
-5.4357 6.1816 -3.8103 0.9644
-6.5254 4.2816 -3.6127 0.9662
-6.5281 3.4910 -3.4267 0.9679
-6.7358 2.1714 -3.2759 0.9693
-7.0708 1.5978 -3.3555 0.9686
-7.0893 0.9458 -3.3106 0.9690
-6.9582 0.2995 -3.2238 0.9698
-7.2056 -0.9875 -3.3666 0.9685
-7.1432 -1.6410 -3.3926 0.9682
-6.7280 -2.1954 -3.2759 0.9693
-6.5518 -3.5338 -3.4457 0.9677
-6.8329 -4.5183 -3.7918 0.9645
-5.9468 -5.6916 -3.8103 0.9644
-3.3965 -7.0513 -3.6229 0.9661
-3.0099 -8.0143 -3.9627 0.9630
-2.2807 -8.2515 -3.9627 0.9630
-1.5331 -8.4224 -3.9627 0.9630
-0.7732 -8.5258 -3.9627 0.9630
0.7590 -8.5271 -3.9627 0.9630
2.9966 -8.0192 -3.9627 0.9630
3.4866 -5.8586 -3.1558 0.9704
4.6148 -4.4315 -2.9616 0.9722
5.3634 -3.5594 -2.9796 0.9720
5.8310 -3.1575 -3.0694 0.9712
-6.5261 4.0893 -3.7777 0.9663
-6.5310 2.6126 -3.4505 0.9691
-6.5333 1.9562 -3.3453 0.9701
-6.5435 1.3354 -3.2759 0.9707
-6.6367 0.7444 -3.2759 0.9707
-6.6767 0.1475 -3.2759 0.9707
-6.6631 -0.4506 -3.2759 0.9707
-6.5961 -1.0450 -3.2759 0.9707
-6.5476 -2.2892 -3.4024 0.9696
-6.5499 -2.9719 -3.5281 0.9685
-6.5293 -3.7001 -3.6813 0.9671
-6.3882 -4.4192 -3.8103 0.9660
-5.9671 -4.9731 -3.8103 0.9660
-4.4319 -6.3794 -3.8103 0.9660
-3.9901 -7.0083 -3.9558 0.9647
